ply
		format ascii 1.0
		element vertex 1365
		property float x
		property float y
		property float z
		property uchar red
		property uchar green
		property uchar blue
		end_header
83.000000 -1.000000 -2.431200 0 0 0
84.000000 -1.000000 -2.431200 0 0 0
85.000000 -1.000000 -2.431200 0 0 0
86.000000 -1.000000 -2.431200 1 1 0
87.000000 -1.000000 -2.431200 2 2 1
88.000000 -1.000000 -2.431200 1 1 0
63.000000 -2.000000 17.626200 0 0 0
64.000000 -2.000000 22.336651 0 0 0
65.000000 -2.000000 26.135401 0 0 0
66.000000 -2.000000 27.199051 0 0 0
67.000000 -2.000000 28.414650 0 0 0
68.000000 -2.000000 29.478300 0 0 0
69.000000 -2.000000 29.782200 0 0 0
70.000000 -2.000000 29.782200 0 0 0
71.000000 -2.000000 -2.431200 0 0 0
72.000000 -2.000000 -2.431200 0 0 0
73.000000 -2.000000 -2.431200 0 0 0
74.000000 -2.000000 -2.431200 0 0 0
75.000000 -2.000000 -2.431200 0 0 0
76.000000 -2.000000 -2.431200 0 0 0
77.000000 -2.000000 -2.431200 0 0 0
78.000000 -2.000000 -2.431200 0 0 0
79.000000 -2.000000 -2.431200 0 0 0
80.000000 -2.000000 -2.431200 0 0 0
81.000000 -2.000000 -2.431200 0 0 0
82.000000 -2.000000 -2.431200 0 0 0
83.000000 -2.000000 -2.431200 0 0 0
84.000000 -2.000000 -2.431200 0 0 0
85.000000 -2.000000 -2.431200 0 0 0
86.000000 -2.000000 -2.431200 1 1 1
87.000000 -2.000000 -2.431200 1 1 0
88.000000 -2.000000 -2.431200 0 0 0
63.000000 -3.000000 17.626200 0 0 0
64.000000 -3.000000 24.312000 0 0 0
65.000000 -3.000000 26.287350 0 0 0
66.000000 -3.000000 27.654900 0 0 0
67.000000 -3.000000 28.870501 0 0 0
68.000000 -3.000000 29.478300 0 0 0
69.000000 -3.000000 29.782200 0 0 0
70.000000 -3.000000 27.806850 0 0 0
71.000000 -3.000000 -2.431200 1 0 0
72.000000 -3.000000 -2.431200 0 0 0
73.000000 -3.000000 -2.431200 0 0 0
74.000000 -3.000000 -2.431200 0 0 0
75.000000 -3.000000 -2.431200 0 0 0
76.000000 -3.000000 -2.431200 0 0 0
77.000000 -3.000000 -2.431200 0 0 0
78.000000 -3.000000 -2.431200 0 0 0
79.000000 -3.000000 -2.431200 0 0 0
80.000000 -3.000000 -2.431200 0 0 0
81.000000 -3.000000 -2.431200 0 0 0
82.000000 -3.000000 -2.431200 0 0 0
83.000000 -3.000000 -2.431200 0 0 0
84.000000 -3.000000 -2.431200 0 0 0
85.000000 -3.000000 -2.431200 0 0 0
86.000000 -3.000000 -2.431200 1 1 1
87.000000 -3.000000 -2.431200 0 0 0
88.000000 -3.000000 -2.431200 1 0 0
63.000000 -4.000000 17.626200 0 0 0
64.000000 -4.000000 24.312000 0 0 0
65.000000 -4.000000 26.287350 0 0 0
66.000000 -4.000000 28.110750 0 0 0
67.000000 -4.000000 29.174400 0 0 0
68.000000 -4.000000 29.630251 0 0 0
69.000000 -4.000000 27.806850 0 0 0
70.000000 -4.000000 27.502951 0 0 0
71.000000 -4.000000 -2.431200 0 0 0
72.000000 -4.000000 -2.431200 0 0 0
73.000000 -4.000000 -2.431200 0 0 0
74.000000 -4.000000 -2.431200 0 0 0
75.000000 -4.000000 -2.431200 0 0 0
76.000000 -4.000000 -2.431200 0 0 0
77.000000 -4.000000 -2.431200 0 0 0
78.000000 -4.000000 -2.431200 0 0 0
79.000000 -4.000000 -2.431200 0 0 0
80.000000 -4.000000 -2.431200 0 0 0
81.000000 -4.000000 -2.431200 0 0 0
82.000000 -4.000000 -2.431200 0 0 0
83.000000 -4.000000 -2.431200 0 0 0
84.000000 -4.000000 -2.431200 0 0 0
85.000000 -4.000000 -2.431200 1 0 0
86.000000 -4.000000 -2.431200 2 2 1
87.000000 -4.000000 -2.431200 1 1 0
88.000000 -4.000000 -2.431200 1 0 0
63.000000 -5.000000 17.474251 0 0 0
64.000000 -5.000000 24.312000 0 0 0
65.000000 -5.000000 27.351000 0 0 0
66.000000 -5.000000 28.566601 0 0 0
67.000000 -5.000000 29.630251 0 0 0
68.000000 -5.000000 29.630251 0 0 0
69.000000 -5.000000 27.502951 0 0 0
71.000000 -5.000000 -2.431200 0 0 0
72.000000 -5.000000 -2.431200 0 0 0
73.000000 -5.000000 -2.431200 0 0 0
74.000000 -5.000000 -2.431200 0 0 0
75.000000 -5.000000 -2.431200 0 0 0
76.000000 -5.000000 -2.431200 0 0 0
77.000000 -5.000000 -2.431200 0 0 0
78.000000 -5.000000 -2.431200 0 0 0
79.000000 -5.000000 -2.431200 0 0 0
80.000000 -5.000000 -2.431200 0 0 0
81.000000 -5.000000 -2.431200 1 1 1
82.000000 -5.000000 -2.431200 0 0 0
83.000000 -5.000000 -2.431200 0 0 0
84.000000 -5.000000 -2.431200 0 0 0
85.000000 -5.000000 -2.431200 1 1 1
86.000000 -5.000000 -2.431200 3 2 2
87.000000 -5.000000 -2.431200 2 2 1
88.000000 -5.000000 -2.431200 2 2 2
64.000000 -6.000000 17.474251 0 0 0
65.000000 -6.000000 27.654900 0 0 0
66.000000 -6.000000 28.870501 0 0 0
67.000000 -6.000000 29.630251 0 0 0
68.000000 -6.000000 29.630251 0 0 0
69.000000 -6.000000 17.018400 0 0 0
70.000000 -6.000000 17.018400 0 0 0
71.000000 -6.000000 -2.431200 0 0 0
72.000000 -6.000000 -2.431200 0 0 0
73.000000 -6.000000 -2.431200 0 0 0
74.000000 -6.000000 -2.431200 0 0 0
75.000000 -6.000000 -2.431200 0 0 0
76.000000 -6.000000 -2.431200 0 0 0
77.000000 -6.000000 -2.431200 0 0 0
78.000000 -6.000000 -2.431200 0 0 0
79.000000 -6.000000 -2.431200 0 0 0
80.000000 -6.000000 -2.431200 0 0 0
81.000000 -6.000000 -2.431200 0 0 0
82.000000 -6.000000 -2.431200 0 0 0
83.000000 -6.000000 -2.431200 0 0 0
84.000000 -6.000000 -2.431200 0 0 0
85.000000 -6.000000 -2.431200 0 0 0
86.000000 -6.000000 -2.431200 0 0 0
87.000000 -6.000000 -2.431200 1 1 1
88.000000 -6.000000 -2.431200 3 2 3
64.000000 -7.000000 17.474251 0 0 0
65.000000 -7.000000 27.654900 0 0 0
66.000000 -7.000000 28.870501 0 0 0
67.000000 -7.000000 29.022449 0 0 0
68.000000 -7.000000 17.018400 0 0 0
69.000000 -7.000000 16.562550 0 0 0
70.000000 -7.000000 17.018400 0 0 0
71.000000 -7.000000 17.170351 0 0 0
72.000000 -7.000000 -2.431200 0 0 0
73.000000 -7.000000 -2.431200 0 0 0
74.000000 -7.000000 -2.431200 0 0 0
75.000000 -7.000000 -2.431200 0 0 0
76.000000 -7.000000 -2.431200 0 0 0
77.000000 -7.000000 -2.431200 0 0 0
78.000000 -7.000000 -2.431200 0 0 0
79.000000 -7.000000 -2.431200 0 0 0
80.000000 -7.000000 -2.431200 0 0 0
81.000000 -7.000000 -2.431200 0 0 0
82.000000 -7.000000 -2.431200 0 0 0
83.000000 -7.000000 -2.431200 0 0 0
84.000000 -7.000000 -2.431200 0 0 0
85.000000 -7.000000 -2.431200 0 0 0
86.000000 -7.000000 -2.431200 0 0 0
87.000000 -7.000000 -2.431200 0 0 0
88.000000 -7.000000 -2.431200 0 0 0
63.000000 -8.000000 17.018400 0 0 0
64.000000 -8.000000 26.439301 0 0 0
65.000000 -8.000000 27.654900 0 0 0
66.000000 -8.000000 29.022449 0 0 0
67.000000 -8.000000 29.022449 0 0 0
68.000000 -8.000000 16.562550 0 0 0
69.000000 -8.000000 16.562550 0 0 0
70.000000 -8.000000 17.170351 0 0 0
71.000000 -8.000000 17.626200 0 0 0
72.000000 -8.000000 17.626200 0 0 0
73.000000 -8.000000 -2.431200 0 0 0
74.000000 -8.000000 -2.431200 0 0 0
75.000000 -8.000000 -2.431200 0 0 0
76.000000 -8.000000 -2.431200 0 0 0
77.000000 -8.000000 -2.431200 0 0 0
78.000000 -8.000000 -2.431200 0 0 0
79.000000 -8.000000 -2.431200 0 0 0
80.000000 -8.000000 -2.431200 0 0 0
81.000000 -8.000000 -2.431200 0 0 0
82.000000 -8.000000 -2.431200 0 0 0
83.000000 -8.000000 -2.431200 0 0 0
84.000000 -8.000000 -2.431200 0 0 0
85.000000 -8.000000 -2.431200 0 0 0
86.000000 -8.000000 -2.431200 0 0 0
87.000000 -8.000000 -2.431200 0 0 0
88.000000 -8.000000 -2.431200 0 0 0
63.000000 -9.000000 17.170351 0 0 0
64.000000 -9.000000 26.439301 0 0 0
65.000000 -9.000000 27.351000 0 0 0
66.000000 -9.000000 29.022449 0 0 0
67.000000 -9.000000 29.022449 0 0 0
68.000000 -9.000000 16.562550 0 0 0
69.000000 -9.000000 16.562550 0 0 0
70.000000 -9.000000 17.170351 0 0 0
71.000000 -9.000000 17.626200 0 0 0
72.000000 -9.000000 17.626200 0 0 0
73.000000 -9.000000 -2.431200 0 0 0
74.000000 -9.000000 -2.431200 0 0 0
75.000000 -9.000000 -2.431200 0 0 0
76.000000 -9.000000 -2.431200 0 0 0
77.000000 -9.000000 -2.431200 0 0 0
78.000000 -9.000000 -2.431200 0 0 0
79.000000 -9.000000 -2.431200 0 0 0
80.000000 -9.000000 -2.431200 0 0 0
81.000000 -9.000000 -2.431200 0 0 0
82.000000 -9.000000 -2.431200 0 0 0
83.000000 -9.000000 -2.431200 0 0 0
84.000000 -9.000000 -2.431200 0 0 0
85.000000 -9.000000 -2.431200 0 0 0
86.000000 -9.000000 -2.431200 1 0 0
87.000000 -9.000000 -2.431200 0 0 0
88.000000 -9.000000 -2.431200 0 0 0
63.000000 -10.000000 17.322300 0 0 0
64.000000 -10.000000 26.439301 0 0 0
65.000000 -10.000000 27.351000 0 0 0
66.000000 -10.000000 29.174400 0 0 0
67.000000 -10.000000 29.174400 0 0 0
68.000000 -10.000000 17.018400 0 0 0
69.000000 -10.000000 17.018400 0 0 0
70.000000 -10.000000 17.170351 0 0 0
71.000000 -10.000000 17.626200 0 0 0
72.000000 -10.000000 -2.431200 0 0 0
73.000000 -10.000000 -2.431200 0 0 0
74.000000 -10.000000 -2.431200 0 0 0
75.000000 -10.000000 -2.431200 0 0 0
76.000000 -10.000000 -2.431200 0 0 0
77.000000 -10.000000 -2.431200 0 0 0
78.000000 -10.000000 -2.431200 0 0 0
79.000000 -10.000000 -2.431200 0 0 0
80.000000 -10.000000 -2.431200 0 0 0
81.000000 -10.000000 -2.431200 0 0 0
82.000000 -10.000000 -2.431200 0 0 0
83.000000 -10.000000 -2.431200 0 0 0
84.000000 -10.000000 -2.431200 0 0 0
85.000000 -10.000000 -2.431200 0 0 0
86.000000 -10.000000 -2.431200 1 1 1
87.000000 -10.000000 -2.431200 1 1 0
88.000000 -10.000000 -2.431200 0 0 0
63.000000 -11.000000 17.322300 0 0 0
64.000000 -11.000000 26.591249 0 0 0
65.000000 -11.000000 27.351000 0 0 0
66.000000 -11.000000 29.174400 0 0 0
67.000000 -11.000000 29.174400 0 0 0
68.000000 -11.000000 17.170351 0 0 0
69.000000 -11.000000 17.170351 0 0 0
70.000000 -11.000000 17.322300 0 0 0
71.000000 -11.000000 17.170351 0 0 0
73.000000 -11.000000 -2.431200 0 0 0
74.000000 -11.000000 -2.431200 0 0 0
75.000000 -11.000000 -2.431200 0 0 0
76.000000 -11.000000 -2.431200 0 0 0
77.000000 -11.000000 -2.431200 0 0 0
78.000000 -11.000000 -2.431200 0 0 0
79.000000 -11.000000 -2.431200 0 0 0
80.000000 -11.000000 -2.431200 0 0 0
81.000000 -11.000000 -2.431200 0 0 0
82.000000 -11.000000 -2.431200 0 0 0
83.000000 -11.000000 -2.431200 0 0 0
84.000000 -11.000000 -2.431200 0 0 0
85.000000 -11.000000 -2.431200 2 1 1
86.000000 -11.000000 -2.431200 2 2 2
87.000000 -11.000000 -2.431200 1 1 1
88.000000 -11.000000 -2.431200 0 0 0
63.000000 -12.000000 17.170351 0 0 0
64.000000 -12.000000 26.895151 0 0 0
65.000000 -12.000000 27.351000 0 0 0
66.000000 -12.000000 27.502951 0 0 0
67.000000 -12.000000 17.322300 0 0 0
68.000000 -12.000000 17.322300 0 0 0
69.000000 -12.000000 17.322300 0 0 0
70.000000 -12.000000 17.322300 0 0 0
73.000000 -12.000000 -2.431200 0 0 0
74.000000 -12.000000 -2.431200 0 0 0
75.000000 -12.000000 -2.431200 0 0 0
76.000000 -12.000000 -2.431200 0 0 0
77.000000 -12.000000 -2.431200 0 0 0
78.000000 -12.000000 -2.431200 0 0 0
79.000000 -12.000000 -2.431200 0 0 0
80.000000 -12.000000 -2.431200 0 0 0
81.000000 -12.000000 -2.431200 0 0 0
82.000000 -12.000000 -2.431200 0 0 0
83.000000 -12.000000 -2.431200 0 0 0
84.000000 -12.000000 -2.431200 0 0 0
85.000000 -12.000000 -2.431200 2 2 2
86.000000 -12.000000 -2.431200 1 1 1
87.000000 -12.000000 -2.431200 1 1 1
88.000000 -12.000000 -2.431200 1 1 1
63.000000 -13.000000 17.170351 0 0 0
64.000000 -13.000000 26.895151 0 0 0
65.000000 -13.000000 27.047100 0 0 0
66.000000 -13.000000 27.047100 0 0 0
67.000000 -13.000000 17.170351 0 0 0
68.000000 -13.000000 17.322300 0 0 0
69.000000 -13.000000 17.778151 0 0 0
70.000000 -13.000000 17.778151 0 0 0
74.000000 -13.000000 -2.431200 0 0 0
75.000000 -13.000000 -2.431200 0 0 0
76.000000 -13.000000 -2.431200 0 0 0
77.000000 -13.000000 -2.431200 0 0 0
78.000000 -13.000000 -2.431200 0 0 0
79.000000 -13.000000 -2.431200 0 0 0
80.000000 -13.000000 -2.431200 0 0 0
81.000000 -13.000000 -2.431200 0 0 0
82.000000 -13.000000 -2.431200 0 0 0
83.000000 -13.000000 -2.431200 0 0 0
84.000000 -13.000000 -2.431200 0 0 0
85.000000 -13.000000 -2.431200 1 1 1
86.000000 -13.000000 -2.431200 1 1 1
87.000000 -13.000000 -2.431200 1 1 1
88.000000 -13.000000 -2.431200 2 2 2
63.000000 -14.000000 17.018400 0 0 0
64.000000 -14.000000 26.743200 0 0 0
65.000000 -14.000000 26.743200 0 0 0
66.000000 -14.000000 17.018400 0 0 0
67.000000 -14.000000 17.018400 0 0 0
68.000000 -14.000000 17.626200 0 0 0
69.000000 -14.000000 18.537901 0 0 0
70.000000 -14.000000 18.537901 0 0 0
74.000000 -14.000000 -2.431200 0 0 0
75.000000 -14.000000 -2.431200 0 0 0
76.000000 -14.000000 -2.431200 0 0 0
77.000000 -14.000000 -2.431200 0 0 0
78.000000 -14.000000 -2.431200 0 0 0
79.000000 -14.000000 -2.431200 0 0 0
80.000000 -14.000000 -2.431200 0 0 0
81.000000 -14.000000 -2.431200 0 0 0
82.000000 -14.000000 -2.431200 0 0 0
83.000000 -14.000000 -2.431200 0 0 0
84.000000 -14.000000 -2.431200 1 0 0
85.000000 -14.000000 -2.431200 3 2 2
86.000000 -14.000000 -2.431200 4 3 3
87.000000 -14.000000 -2.431200 3 2 2
88.000000 -14.000000 -2.431200 1 1 1
63.000000 -15.000000 17.018400 0 0 0
64.000000 -15.000000 17.170351 0 0 0
65.000000 -15.000000 16.258650 0 0 0
66.000000 -15.000000 16.866449 0 0 0
67.000000 -15.000000 17.018400 0 0 0
68.000000 -15.000000 17.778151 0 0 0
69.000000 -15.000000 18.689850 0 0 0
70.000000 -15.000000 18.689850 0 0 0
75.000000 -15.000000 -2.431200 0 0 0
76.000000 -15.000000 -2.431200 0 0 0
77.000000 -15.000000 -2.431200 0 0 0
78.000000 -15.000000 -2.431200 0 0 0
79.000000 -15.000000 -2.431200 0 0 0
80.000000 -15.000000 -2.431200 0 0 0
81.000000 -15.000000 -2.431200 0 0 0
82.000000 -15.000000 -2.431200 0 0 0
83.000000 -15.000000 -2.431200 0 0 0
84.000000 -15.000000 -2.431200 0 0 0
85.000000 -15.000000 -2.431200 3 2 2
86.000000 -15.000000 -2.431200 3 3 3
87.000000 -15.000000 -2.431200 1 1 1
88.000000 -15.000000 -2.431200 0 0 0
63.000000 -16.000000 17.018400 0 0 0
64.000000 -16.000000 17.170351 0 0 0
65.000000 -16.000000 16.258650 0 0 0
66.000000 -16.000000 16.866449 0 0 0
67.000000 -16.000000 17.018400 0 0 0
68.000000 -16.000000 17.778151 0 0 0
69.000000 -16.000000 18.234001 0 0 0
70.000000 -16.000000 18.234001 0 0 0
71.000000 -16.000000 17.930099 0 0 0
75.000000 -16.000000 -2.431200 0 0 0
76.000000 -16.000000 -2.431200 0 0 0
77.000000 -16.000000 -2.431200 0 0 0
78.000000 -16.000000 -2.431200 0 0 0
79.000000 -16.000000 -2.431200 0 0 0
80.000000 -16.000000 -2.431200 0 0 0
81.000000 -16.000000 -2.431200 0 0 0
82.000000 -16.000000 -2.431200 0 0 0
83.000000 -16.000000 -2.431200 0 0 0
84.000000 -16.000000 -2.431200 0 0 0
85.000000 -16.000000 -2.431200 1 0 0
86.000000 -16.000000 -2.431200 1 0 0
87.000000 -16.000000 -2.431200 0 0 0
88.000000 -16.000000 -2.431200 0 0 0
64.000000 -17.000000 17.018400 0 0 0
65.000000 -17.000000 15.498900 0 0 0
66.000000 -17.000000 16.258650 0 0 0
67.000000 -17.000000 16.866449 0 0 0
68.000000 -17.000000 17.626200 0 0 0
69.000000 -17.000000 17.930099 0 0 0
70.000000 -17.000000 18.234001 0 0 0
71.000000 -17.000000 17.930099 0 0 0
72.000000 -17.000000 19.297649 0 0 0
73.000000 -17.000000 22.184700 0 0 0
74.000000 -17.000000 -2.431200 0 0 0
75.000000 -17.000000 -2.431200 0 0 0
76.000000 -17.000000 -2.431200 0 0 0
77.000000 -17.000000 -2.431200 0 0 0
78.000000 -17.000000 -2.431200 0 0 0
79.000000 -17.000000 -2.431200 0 0 0
80.000000 -17.000000 -2.431200 0 0 0
81.000000 -17.000000 -2.431200 0 0 0
82.000000 -17.000000 -2.431200 0 0 0
83.000000 -17.000000 -2.431200 0 0 0
84.000000 -17.000000 -2.431200 1 1 1
85.000000 -17.000000 -2.431200 1 0 0
86.000000 -17.000000 -2.431200 0 0 0
87.000000 -17.000000 -2.431200 1 1 1
88.000000 -17.000000 -2.431200 1 1 1
64.000000 -18.000000 17.018400 0 0 0
65.000000 -18.000000 15.195000 0 0 0
66.000000 -18.000000 15.802800 0 0 0
67.000000 -18.000000 16.714500 0 0 0
68.000000 -18.000000 17.626200 0 0 0
69.000000 -18.000000 17.930099 0 0 0
70.000000 -18.000000 18.234001 0 0 0
71.000000 -18.000000 19.297649 0 0 0
72.000000 -18.000000 22.184700 0 0 0
73.000000 -18.000000 24.463951 0 0 0
74.000000 -18.000000 -2.431200 0 0 0
75.000000 -18.000000 -2.431200 0 0 0
76.000000 -18.000000 -2.431200 0 0 0
77.000000 -18.000000 -2.431200 0 0 0
78.000000 -18.000000 -2.431200 0 0 0
79.000000 -18.000000 -2.431200 0 0 0
80.000000 -18.000000 -2.431200 0 0 0
81.000000 -18.000000 -2.431200 0 0 0
82.000000 -18.000000 -2.431200 0 0 0
83.000000 -18.000000 -2.431200 0 0 0
84.000000 -18.000000 -2.431200 2 1 1
85.000000 -18.000000 -2.431200 2 2 1
86.000000 -18.000000 -2.431200 1 0 0
87.000000 -18.000000 -2.431200 2 2 2
88.000000 -18.000000 -2.431200 2 2 2
64.000000 -19.000000 12.156000 0 0 0
65.000000 -19.000000 12.156000 0 0 0
66.000000 -19.000000 15.195000 0 0 0
67.000000 -19.000000 16.562550 0 0 0
68.000000 -19.000000 17.474251 0 0 0
69.000000 -19.000000 18.385950 0 0 0
70.000000 -19.000000 18.993750 0 0 0
71.000000 -19.000000 21.424950 0 0 0
72.000000 -19.000000 24.463951 0 0 0
73.000000 -19.000000 26.439301 0 0 0
74.000000 -19.000000 26.439301 0 0 0
75.000000 -19.000000 -2.431200 0 0 0
76.000000 -19.000000 -2.431200 0 0 0
77.000000 -19.000000 -2.431200 0 0 0
78.000000 -19.000000 -2.431200 0 0 0
79.000000 -19.000000 -2.431200 0 0 0
80.000000 -19.000000 -2.431200 0 0 0
81.000000 -19.000000 -2.431200 0 0 0
82.000000 -19.000000 -2.431200 0 0 0
83.000000 -19.000000 -2.431200 0 0 0
84.000000 -19.000000 -2.431200 1 1 1
85.000000 -19.000000 -2.431200 2 2 1
86.000000 -19.000000 -2.431200 1 1 1
87.000000 -19.000000 -2.431200 2 2 2
88.000000 -19.000000 -2.431200 2 2 2
63.000000 -20.000000 10.484550 0 0 0
64.000000 -20.000000 12.156000 0 0 0
65.000000 -20.000000 12.156000 0 0 0
66.000000 -20.000000 15.195000 0 0 0
67.000000 -20.000000 16.410601 0 0 0
68.000000 -20.000000 17.474251 0 0 0
69.000000 -20.000000 19.449600 0 0 0
70.000000 -20.000000 19.601551 0 0 0
71.000000 -20.000000 21.728849 0 0 0
72.000000 -20.000000 25.983450 0 0 0
73.000000 -20.000000 27.047100 0 0 0
74.000000 -20.000000 27.047100 0 0 0
75.000000 -20.000000 -2.431200 0 0 0
76.000000 -20.000000 -2.431200 0 0 0
77.000000 -20.000000 -2.431200 0 0 0
78.000000 -20.000000 -2.431200 0 0 0
79.000000 -20.000000 -2.431200 0 0 0
80.000000 -20.000000 -2.431200 0 0 0
81.000000 -20.000000 -2.431200 0 0 0
82.000000 -20.000000 -2.431200 0 0 0
83.000000 -20.000000 -2.431200 0 0 0
84.000000 -20.000000 -2.431200 0 0 0
85.000000 -20.000000 -2.431200 1 1 1
86.000000 -20.000000 -2.431200 2 1 1
87.000000 -20.000000 -2.431200 2 2 2
88.000000 -20.000000 -2.431200 1 1 1
63.000000 -21.000000 10.484550 0 0 0
64.000000 -21.000000 10.484550 0 0 0
65.000000 -21.000000 10.484550 0 0 0
66.000000 -21.000000 15.346951 0 0 0
67.000000 -21.000000 16.410601 0 0 0
68.000000 -21.000000 17.474251 0 0 0
69.000000 -21.000000 19.601551 0 0 0
70.000000 -21.000000 19.601551 0 0 0
71.000000 -21.000000 21.880800 0 0 0
72.000000 -21.000000 26.287350 0 0 0
73.000000 -21.000000 27.351000 0 0 0
74.000000 -21.000000 27.351000 0 0 0
75.000000 -21.000000 -2.431200 0 0 0
76.000000 -21.000000 -2.431200 0 0 0
77.000000 -21.000000 -2.431200 0 0 0
78.000000 -21.000000 -2.431200 0 0 0
79.000000 -21.000000 -2.431200 0 0 0
80.000000 -21.000000 -2.431200 0 0 0
81.000000 -21.000000 -2.431200 0 0 0
82.000000 -21.000000 -2.431200 0 0 0
83.000000 -21.000000 -2.431200 0 0 0
84.000000 -21.000000 -2.431200 0 0 0
85.000000 -21.000000 -2.431200 1 1 0
86.000000 -21.000000 -2.431200 2 1 1
87.000000 -21.000000 -2.431200 1 1 1
88.000000 -21.000000 -2.431200 0 0 0
63.000000 -22.000000 10.484550 0 0 0
64.000000 -22.000000 10.484550 0 0 0
65.000000 -22.000000 10.484550 0 0 0
66.000000 -22.000000 16.410601 0 0 0
67.000000 -22.000000 16.866449 0 0 0
68.000000 -22.000000 17.626200 0 0 0
69.000000 -22.000000 19.601551 0 0 0
70.000000 -22.000000 19.601551 0 0 0
71.000000 -22.000000 21.880800 0 0 0
72.000000 -22.000000 26.287350 0 0 0
73.000000 -22.000000 27.351000 0 0 0
74.000000 -22.000000 27.351000 0 0 0
75.000000 -22.000000 -2.431200 0 0 0
76.000000 -22.000000 -2.431200 0 0 0
77.000000 -22.000000 -2.431200 0 0 0
78.000000 -22.000000 -2.431200 0 0 0
79.000000 -22.000000 -2.431200 0 0 0
80.000000 -22.000000 -2.431200 0 0 0
81.000000 -22.000000 -2.431200 0 0 0
82.000000 -22.000000 -2.431200 0 0 0
83.000000 -22.000000 -2.431200 0 0 0
84.000000 -22.000000 -2.431200 1 1 0
85.000000 -22.000000 -2.431200 0 0 0
86.000000 -22.000000 -2.431200 0 0 0
87.000000 -22.000000 -2.431200 0 0 0
88.000000 -22.000000 -2.431200 1 1 1
63.000000 -23.000000 10.484550 0 0 0
64.000000 -23.000000 17.018400 0 0 0
65.000000 -23.000000 16.714500 0 0 0
66.000000 -23.000000 16.866449 0 0 0
67.000000 -23.000000 17.170351 0 0 0
68.000000 -23.000000 17.626200 0 0 0
69.000000 -23.000000 19.753500 0 0 0
70.000000 -23.000000 19.905451 0 0 0
71.000000 -23.000000 22.032751 0 0 0
72.000000 -23.000000 26.135401 0 0 0
73.000000 -23.000000 27.351000 0 0 0
74.000000 -23.000000 27.351000 0 0 0
75.000000 -23.000000 -2.431200 0 0 0
76.000000 -23.000000 -2.431200 0 0 0
77.000000 -23.000000 -2.431200 0 0 0
78.000000 -23.000000 -2.431200 0 0 0
79.000000 -23.000000 -2.431200 0 0 0
80.000000 -23.000000 -2.431200 0 0 0
81.000000 -23.000000 -2.431200 0 0 0
82.000000 -23.000000 -2.431200 0 0 0
83.000000 -23.000000 -2.431200 0 0 0
84.000000 -23.000000 -2.431200 0 0 0
85.000000 -23.000000 -2.431200 0 0 0
86.000000 -23.000000 -2.431200 0 0 0
87.000000 -23.000000 -2.431200 0 0 0
88.000000 -23.000000 -2.431200 0 0 0
63.000000 -24.000000 17.018400 0 0 0
64.000000 -24.000000 17.170351 0 0 0
65.000000 -24.000000 17.018400 0 0 0
66.000000 -24.000000 17.170351 0 0 0
67.000000 -24.000000 17.626200 0 0 0
68.000000 -24.000000 17.626200 0 0 0
69.000000 -24.000000 19.753500 0 0 0
70.000000 -24.000000 21.728849 0 0 0
71.000000 -24.000000 23.552250 0 0 0
72.000000 -24.000000 25.527599 0 0 0
73.000000 -24.000000 27.199051 0 0 0
74.000000 -24.000000 27.199051 0 0 0
75.000000 -24.000000 -2.431200 0 0 0
76.000000 -24.000000 -2.431200 0 0 0
77.000000 -24.000000 -2.431200 0 0 0
78.000000 -24.000000 -2.431200 0 0 0
79.000000 -24.000000 -2.431200 0 0 0
80.000000 -24.000000 -2.431200 0 0 0
81.000000 -24.000000 -2.431200 0 0 0
82.000000 -24.000000 -2.431200 0 0 0
83.000000 -24.000000 -2.431200 0 0 0
84.000000 -24.000000 -2.431200 0 0 0
85.000000 -24.000000 -2.431200 1 1 1
86.000000 -24.000000 -2.431200 0 0 0
87.000000 -24.000000 -2.431200 1 1 1
88.000000 -24.000000 -2.431200 2 2 1
63.000000 -25.000000 17.018400 0 0 0
64.000000 -25.000000 17.170351 0 0 0
65.000000 -25.000000 17.170351 0 0 0
66.000000 -25.000000 17.322300 0 0 0
67.000000 -25.000000 17.626200 0 0 0
68.000000 -25.000000 17.626200 0 0 0
69.000000 -25.000000 19.905451 0 0 0
70.000000 -25.000000 21.880800 0 0 0
71.000000 -25.000000 23.552250 0 0 0
72.000000 -25.000000 24.312000 0 0 0
73.000000 -25.000000 26.591249 0 0 0
74.000000 -25.000000 26.591249 0 0 0
75.000000 -25.000000 -2.431200 0 0 0
76.000000 -25.000000 -2.431200 0 0 0
77.000000 -25.000000 -2.431200 0 0 0
78.000000 -25.000000 -2.431200 0 0 0
79.000000 -25.000000 -2.431200 0 0 0
80.000000 -25.000000 -2.431200 0 0 0
81.000000 -25.000000 -2.431200 0 0 0
82.000000 -25.000000 -2.431200 0 0 0
83.000000 -25.000000 -2.431200 0 0 0
84.000000 -25.000000 -2.431200 0 0 0
85.000000 -25.000000 -2.431200 1 1 1
86.000000 -25.000000 -2.431200 1 1 1
87.000000 -25.000000 -2.431200 2 2 2
88.000000 -25.000000 -2.431200 3 3 2
64.000000 -26.000000 17.170351 0 0 0
65.000000 -26.000000 17.170351 0 0 0
66.000000 -26.000000 17.626200 0 0 0
67.000000 -26.000000 17.626200 0 0 0
68.000000 -26.000000 17.626200 0 0 0
69.000000 -26.000000 19.905451 0 0 0
70.000000 -26.000000 21.728849 0 0 0
71.000000 -26.000000 22.336651 0 0 0
72.000000 -26.000000 24.160049 0 0 0
73.000000 -26.000000 24.312000 0 0 0
74.000000 -26.000000 -2.431200 0 0 0
75.000000 -26.000000 -2.431200 0 0 0
76.000000 -26.000000 -2.431200 0 0 0
77.000000 -26.000000 -2.431200 0 0 0
78.000000 -26.000000 -2.431200 0 0 0
79.000000 -26.000000 -2.431200 0 0 0
80.000000 -26.000000 -2.431200 0 0 0
81.000000 -26.000000 -2.431200 0 0 0
82.000000 -26.000000 -2.431200 0 0 0
83.000000 -26.000000 -2.431200 1 0 0
84.000000 -26.000000 -2.431200 1 0 0
85.000000 -26.000000 -2.431200 1 1 1
86.000000 -26.000000 -2.431200 2 1 1
87.000000 -26.000000 -2.431200 2 1 1
88.000000 -26.000000 -2.431200 1 1 1
64.000000 -27.000000 16.410601 0 0 0
65.000000 -27.000000 16.410601 0 0 0
66.000000 -27.000000 17.322300 0 0 0
67.000000 -27.000000 17.778151 0 0 0
68.000000 -27.000000 19.905451 0 0 0
69.000000 -27.000000 21.273001 0 0 0
70.000000 -27.000000 21.576900 0 0 0
71.000000 -27.000000 21.880800 0 0 0
72.000000 -27.000000 23.552250 0 0 0
73.000000 -27.000000 -2.431200 0 0 0
74.000000 -27.000000 -2.431200 0 0 0
75.000000 -27.000000 -2.431200 0 0 0
76.000000 -27.000000 -2.431200 0 0 0
77.000000 -27.000000 -2.431200 0 0 0
78.000000 -27.000000 -2.431200 0 0 0
79.000000 -27.000000 -2.431200 0 0 0
80.000000 -27.000000 -2.431200 0 0 0
81.000000 -27.000000 -2.431200 0 0 0
82.000000 -27.000000 -2.431200 1 1 1
83.000000 -27.000000 -2.431200 2 2 2
84.000000 -27.000000 -2.431200 2 1 1
85.000000 -27.000000 -2.431200 1 1 1
86.000000 -27.000000 -2.431200 0 0 0
87.000000 -27.000000 -2.431200 2 2 2
88.000000 -27.000000 -2.431200 2 2 2
64.000000 -28.000000 16.410601 0 0 0
65.000000 -28.000000 16.410601 0 0 0
66.000000 -28.000000 17.322300 0 0 0
67.000000 -28.000000 17.778151 0 0 0
68.000000 -28.000000 20.513250 0 0 0
69.000000 -28.000000 21.576900 0 0 0
70.000000 -28.000000 21.576900 0 0 0
73.000000 -28.000000 -2.431200 0 0 0
74.000000 -28.000000 -2.431200 0 0 0
75.000000 -28.000000 -2.431200 0 0 0
76.000000 -28.000000 -2.431200 0 0 0
77.000000 -28.000000 -2.431200 0 0 0
78.000000 -28.000000 -2.431200 0 0 0
79.000000 -28.000000 -2.431200 0 0 0
80.000000 -28.000000 -2.431200 0 0 0
81.000000 -28.000000 -2.431200 0 0 0
82.000000 -28.000000 -2.431200 0 0 0
83.000000 -28.000000 -2.431200 1 1 1
84.000000 -28.000000 -2.431200 1 1 1
85.000000 -28.000000 -2.431200 2 2 2
86.000000 -28.000000 -2.431200 1 0 0
87.000000 -28.000000 -2.431200 1 1 1
88.000000 -28.000000 -2.431200 2 2 2
64.000000 -29.000000 16.410601 0 0 0
65.000000 -29.000000 14.587200 0 0 0
66.000000 -29.000000 16.410601 0 0 0
67.000000 -29.000000 17.322300 0 0 0
68.000000 -29.000000 20.513250 0 0 0
69.000000 -29.000000 21.576900 0 0 0
70.000000 -29.000000 22.792500 0 0 0
71.000000 -29.000000 22.792500 0 0 0
72.000000 -29.000000 -2.431200 0 0 0
73.000000 -29.000000 -2.431200 0 0 0
74.000000 -29.000000 -2.431200 0 0 0
75.000000 -29.000000 -2.431200 0 0 0
76.000000 -29.000000 -2.431200 0 0 0
77.000000 -29.000000 -2.431200 0 0 0
78.000000 -29.000000 -2.431200 0 0 0
79.000000 -29.000000 -2.431200 0 0 0
80.000000 -29.000000 -2.431200 0 0 0
81.000000 -29.000000 -2.431200 0 0 0
82.000000 -29.000000 -2.431200 0 0 0
83.000000 -29.000000 -2.431200 0 0 0
84.000000 -29.000000 -2.431200 2 1 1
85.000000 -29.000000 -2.431200 3 3 3
86.000000 -29.000000 -2.431200 0 0 0
87.000000 -29.000000 -2.431200 1 1 0
88.000000 -29.000000 -2.431200 2 1 1
64.000000 -30.000000 17.170351 0 0 0
65.000000 -30.000000 14.587200 0 0 0
66.000000 -30.000000 16.410601 0 0 0
67.000000 -30.000000 16.410601 0 0 0
68.000000 -30.000000 17.778151 0 0 0
69.000000 -30.000000 20.513250 0 0 0
70.000000 -30.000000 24.919800 0 0 0
71.000000 -30.000000 22.792500 0 0 0
72.000000 -30.000000 -2.431200 0 0 0
73.000000 -30.000000 -2.431200 0 0 0
74.000000 -30.000000 -2.431200 0 0 0
75.000000 -30.000000 -2.431200 0 0 0
76.000000 -30.000000 -2.431200 0 0 0
77.000000 -30.000000 -2.431200 0 0 0
78.000000 -30.000000 -2.431200 0 0 0
79.000000 -30.000000 -2.431200 0 0 0
80.000000 -30.000000 -2.431200 0 0 0
81.000000 -30.000000 -2.431200 0 0 0
82.000000 -30.000000 -2.431200 0 0 0
83.000000 -30.000000 -2.431200 1 1 1
84.000000 -30.000000 -2.431200 1 1 1
85.000000 -30.000000 -2.431200 1 1 1
86.000000 -30.000000 -2.431200 1 1 1
87.000000 -30.000000 -2.431200 1 1 1
88.000000 -30.000000 -2.431200 2 1 1
63.000000 -31.000000 17.170351 0 0 0
64.000000 -31.000000 17.322300 0 0 0
65.000000 -31.000000 89.954399 0 0 0
66.000000 -31.000000 90.410248 0 0 0
70.000000 -31.000000 94.816803 0 0 0
71.000000 -31.000000 96.640198 0 0 0
72.000000 -31.000000 -2.431200 0 0 0
73.000000 -31.000000 -2.431200 0 0 0
74.000000 -31.000000 -2.431200 0 0 0
75.000000 -31.000000 -2.431200 0 0 0
76.000000 -31.000000 -2.431200 0 0 0
77.000000 -31.000000 -2.431200 0 0 0
78.000000 -31.000000 -2.431200 0 0 0
79.000000 -31.000000 -2.431200 0 0 0
80.000000 -31.000000 -2.431200 0 0 0
81.000000 -31.000000 -2.431200 0 0 0
82.000000 -31.000000 -2.431200 0 0 0
83.000000 -31.000000 -2.431200 2 1 1
84.000000 -31.000000 -2.431200 3 2 2
85.000000 -31.000000 -2.431200 2 1 1
86.000000 -31.000000 -2.431200 1 1 1
87.000000 -31.000000 -2.431200 2 1 1
88.000000 -31.000000 -2.431200 0 0 0
63.000000 -32.000000 17.170351 0 0 0
64.000000 -32.000000 89.802452 0 0 0
65.000000 -32.000000 90.410248 0 0 0
66.000000 -32.000000 91.929749 0 0 0
67.000000 -32.000000 91.929749 0 0 0
68.000000 -32.000000 91.018051 0 0 0
70.000000 -32.000000 95.576553 0 0 0
71.000000 -32.000000 97.551903 0 0 0
72.000000 -32.000000 97.551903 0 0 0
73.000000 -32.000000 -2.431200 0 0 0
74.000000 -32.000000 -2.431200 0 0 0
75.000000 -32.000000 -2.431200 0 0 0
76.000000 -32.000000 -2.431200 0 0 0
77.000000 -32.000000 -2.431200 0 0 0
78.000000 -32.000000 -2.431200 0 0 0
79.000000 -32.000000 -2.431200 0 0 0
80.000000 -32.000000 -2.431200 0 0 0
81.000000 -32.000000 -2.431200 0 0 0
82.000000 -32.000000 -2.431200 0 0 0
83.000000 -32.000000 -2.431200 0 0 0
84.000000 -32.000000 -2.431200 2 1 1
85.000000 -32.000000 -2.431200 1 1 1
86.000000 -32.000000 -2.431200 1 1 1
87.000000 -32.000000 -2.431200 3 2 2
88.000000 -32.000000 -2.431200 1 1 1
63.000000 -33.000000 17.018400 0 0 0
64.000000 -33.000000 89.802452 0 0 0
65.000000 -33.000000 90.866104 0 0 0
66.000000 -33.000000 92.385605 0 0 0
67.000000 -33.000000 93.297302 0 0 0
68.000000 -33.000000 92.993401 0 0 0
69.000000 -33.000000 92.993401 0 0 0
70.000000 -33.000000 95.576553 0 0 0
71.000000 -33.000000 97.703850 0 0 0
72.000000 -33.000000 97.703850 0 0 0
73.000000 -33.000000 -2.431200 0 0 0
74.000000 -33.000000 -2.431200 0 0 0
75.000000 -33.000000 -2.431200 0 0 0
76.000000 -33.000000 -2.431200 0 0 0
77.000000 -33.000000 -2.431200 0 0 0
78.000000 -33.000000 -2.431200 0 0 0
79.000000 -33.000000 -2.431200 0 0 0
80.000000 -33.000000 -2.431200 0 0 0
81.000000 -33.000000 -2.431200 0 0 0
82.000000 -33.000000 -2.431200 0 0 0
83.000000 -33.000000 -2.431200 0 0 0
84.000000 -33.000000 -2.431200 1 1 1
85.000000 -33.000000 -2.431200 2 2 2
86.000000 -33.000000 -2.431200 2 1 1
87.000000 -33.000000 -2.431200 3 2 2
88.000000 -33.000000 -2.431200 3 2 2
63.000000 -34.000000 17.018400 0 0 0
64.000000 -34.000000 90.714149 0 0 0
65.000000 -34.000000 92.385605 0 0 0
66.000000 -34.000000 93.449249 0 0 0
67.000000 -34.000000 94.209000 0 0 0
68.000000 -34.000000 94.209000 0 0 0
69.000000 -34.000000 94.360954 0 0 0
70.000000 -34.000000 95.120705 0 0 0
71.000000 -34.000000 97.248001 0 0 0
72.000000 -34.000000 97.248001 0 0 0
73.000000 -34.000000 -2.431200 0 0 0
74.000000 -34.000000 -2.431200 0 0 0
75.000000 -34.000000 -2.431200 0 0 0
76.000000 -34.000000 -2.431200 0 0 0
77.000000 -34.000000 -2.431200 0 0 0
78.000000 -34.000000 -2.431200 0 0 0
79.000000 -34.000000 -2.431200 0 0 0
80.000000 -34.000000 -2.431200 0 0 0
81.000000 -34.000000 -2.431200 0 0 0
82.000000 -34.000000 -2.431200 0 0 0
83.000000 -34.000000 -2.431200 0 0 0
84.000000 -34.000000 -2.431200 1 1 1
85.000000 -34.000000 -2.431200 2 2 2
86.000000 -34.000000 -2.431200 2 2 1
87.000000 -34.000000 -2.431200 3 2 2
88.000000 -34.000000 -2.431200 1 1 1
63.000000 -35.000000 17.018400 0 0 0
64.000000 -35.000000 92.233650 0 0 0
65.000000 -35.000000 92.841454 0 0 0
66.000000 -35.000000 94.209000 0 0 0
67.000000 -35.000000 95.880447 0 0 0
68.000000 -35.000000 95.880447 0 0 0
69.000000 -35.000000 94.360954 0 0 0
70.000000 -35.000000 94.057053 0 0 0
71.000000 -35.000000 96.792152 0 0 0
72.000000 -35.000000 96.792152 0 0 0
73.000000 -35.000000 -2.431200 0 0 0
74.000000 -35.000000 -2.431200 0 0 0
75.000000 -35.000000 -2.431200 0 0 0
76.000000 -35.000000 -2.431200 0 0 0
77.000000 -35.000000 -2.431200 0 0 0
78.000000 -35.000000 -2.431200 0 0 0
79.000000 -35.000000 -2.431200 0 0 0
80.000000 -35.000000 -2.431200 1 1 1
81.000000 -35.000000 -2.431200 2 2 2
82.000000 -35.000000 -2.431200 2 2 2
83.000000 -35.000000 -2.431200 2 1 1
84.000000 -35.000000 -2.431200 1 1 1
85.000000 -35.000000 -2.431200 2 2 2
86.000000 -35.000000 -2.431200 1 1 1
87.000000 -35.000000 -0.911700 1 1 1
88.000000 -35.000000 -0.911700 1 1 1
63.000000 -36.000000 17.018400 0 0 0
64.000000 -36.000000 92.689499 0 0 0
65.000000 -36.000000 92.841454 0 0 0
66.000000 -36.000000 94.209000 0 0 0
67.000000 -36.000000 95.880447 0 0 0
68.000000 -36.000000 95.880447 0 0 0
69.000000 -36.000000 94.360954 0 0 0
70.000000 -36.000000 92.841454 0 0 0
71.000000 -36.000000 94.360954 0 0 0
72.000000 -36.000000 -2.431200 0 0 0
73.000000 -36.000000 -2.431200 0 0 0
74.000000 -36.000000 -2.431200 0 0 0
75.000000 -36.000000 -2.431200 0 0 0
76.000000 -36.000000 -2.431200 0 0 0
77.000000 -36.000000 -2.431200 0 0 0
78.000000 -36.000000 -2.431200 0 0 0
79.000000 -36.000000 -2.431200 0 0 0
80.000000 -36.000000 -2.431200 0 0 0
81.000000 -36.000000 -2.431200 2 2 2
82.000000 -36.000000 -2.431200 2 2 2
83.000000 -36.000000 -2.431200 1 1 1
84.000000 -36.000000 -2.431200 0 0 0
85.000000 -36.000000 -2.431200 1 0 0
86.000000 -36.000000 -2.431200 1 1 1
87.000000 -36.000000 -0.911700 2 2 2
88.000000 -36.000000 -0.911700 2 2 2
63.000000 -37.000000 17.018400 0 0 0
64.000000 -37.000000 92.689499 0 0 0
65.000000 -37.000000 92.993401 0 0 0
66.000000 -37.000000 94.209000 0 0 0
67.000000 -37.000000 95.576553 0 0 0
68.000000 -37.000000 95.576553 0 0 0
69.000000 -37.000000 94.512901 0 0 0
70.000000 -37.000000 92.841454 0 0 0
71.000000 -37.000000 94.057053 0 0 0
72.000000 -37.000000 -2.431200 0 0 0
73.000000 -37.000000 -2.431200 0 0 0
74.000000 -37.000000 -2.431200 0 0 0
75.000000 -37.000000 -2.431200 0 0 0
76.000000 -37.000000 -2.431200 0 0 0
77.000000 -37.000000 -2.431200 0 0 0
78.000000 -37.000000 -2.431200 0 0 0
79.000000 -37.000000 -2.431200 0 0 0
80.000000 -37.000000 -2.431200 0 0 0
81.000000 -37.000000 -2.431200 1 1 1
82.000000 -37.000000 -2.431200 2 2 2
83.000000 -37.000000 -2.431200 1 1 1
84.000000 -37.000000 -2.431200 0 0 0
85.000000 -37.000000 -2.431200 0 0 0
86.000000 -37.000000 -2.431200 2 1 1
87.000000 -37.000000 -1.063650 2 2 2
88.000000 -37.000000 -1.063650 1 1 1
63.000000 -38.000000 17.018400 0 0 0
64.000000 -38.000000 92.689499 0 0 0
65.000000 -38.000000 93.145348 0 0 0
66.000000 -38.000000 94.360954 0 0 0
67.000000 -38.000000 95.424599 0 0 0
68.000000 -38.000000 95.424599 0 0 0
69.000000 -38.000000 94.816803 0 0 0
70.000000 -38.000000 94.512901 0 0 0
71.000000 -38.000000 94.816803 0 0 0
72.000000 -38.000000 -2.431200 0 0 0
73.000000 -38.000000 -2.431200 0 0 0
74.000000 -38.000000 -2.431200 0 0 0
75.000000 -38.000000 -2.431200 0 0 0
76.000000 -38.000000 -2.431200 0 0 0
77.000000 -38.000000 -2.431200 0 0 0
78.000000 -38.000000 -2.431200 0 0 0
79.000000 -38.000000 -2.431200 0 0 0
80.000000 -38.000000 -2.431200 0 0 0
81.000000 -38.000000 -2.431200 0 0 0
82.000000 -38.000000 -2.431200 1 1 1
83.000000 -38.000000 -2.431200 2 2 1
84.000000 -38.000000 -2.431200 2 2 1
85.000000 -38.000000 -2.431200 0 0 0
86.000000 -38.000000 -2.431200 0 0 0
87.000000 -38.000000 -2.431200 0 0 0
88.000000 -38.000000 -2.431200 1 0 0
64.000000 -39.000000 17.018400 0 0 0
65.000000 -39.000000 93.145348 0 0 0
66.000000 -39.000000 94.360954 0 0 0
67.000000 -39.000000 95.424599 0 0 0
68.000000 -39.000000 95.424599 0 0 0
69.000000 -39.000000 95.120705 0 0 0
70.000000 -39.000000 95.120705 0 0 0
71.000000 -39.000000 96.640198 0 0 0
72.000000 -39.000000 96.640198 0 0 0
73.000000 -39.000000 -2.431200 0 0 0
74.000000 -39.000000 -2.431200 0 0 0
75.000000 -39.000000 -2.431200 0 0 0
76.000000 -39.000000 -2.431200 0 0 0
77.000000 -39.000000 -2.431200 0 0 0
78.000000 -39.000000 -2.431200 0 0 0
79.000000 -39.000000 -2.431200 1 1 1
80.000000 -39.000000 -2.431200 2 1 1
81.000000 -39.000000 -2.431200 0 0 0
82.000000 -39.000000 -2.431200 0 0 0
83.000000 -39.000000 -2.431200 1 1 0
84.000000 -39.000000 -2.431200 2 1 1
85.000000 -39.000000 -2.431200 0 0 0
86.000000 -39.000000 -2.431200 1 0 0
87.000000 -39.000000 -1.063650 1 1 1
88.000000 -39.000000 -2.431200 1 1 1
64.000000 -40.000000 17.018400 0 0 0
65.000000 -40.000000 92.841454 0 0 0
66.000000 -40.000000 94.360954 0 0 0
67.000000 -40.000000 94.816803 0 0 0
68.000000 -40.000000 94.816803 0 0 0
69.000000 -40.000000 95.120705 0 0 0
70.000000 -40.000000 95.120705 0 0 0
71.000000 -40.000000 96.792152 0 0 0
72.000000 -40.000000 96.792152 0 0 0
73.000000 -40.000000 -2.431200 0 0 0
74.000000 -40.000000 -2.431200 0 0 0
75.000000 -40.000000 -2.431200 0 0 0
76.000000 -40.000000 -2.431200 0 0 0
77.000000 -40.000000 -2.431200 0 0 0
78.000000 -40.000000 -2.431200 0 0 0
79.000000 -40.000000 -2.431200 1 1 1
80.000000 -40.000000 -2.431200 1 1 1
81.000000 -40.000000 -2.431200 1 1 0
82.000000 -40.000000 -2.431200 1 1 1
83.000000 -40.000000 -2.431200 0 0 0
84.000000 -40.000000 -2.431200 1 1 1
85.000000 -40.000000 -2.431200 1 1 1
86.000000 -40.000000 94.968750 1 0 0
87.000000 -40.000000 94.816803 1 0 0
88.000000 -40.000000 94.816803 10 9 9
63.000000 -41.000000 17.018400 0 0 0
64.000000 -41.000000 17.018400 0 0 0
66.000000 -41.000000 92.841454 0 0 0
67.000000 -41.000000 93.145348 0 0 0
68.000000 -41.000000 93.449249 0 0 0
69.000000 -41.000000 93.449249 0 0 0
70.000000 -41.000000 94.664848 0 0 0
71.000000 -41.000000 95.120705 0 0 0
72.000000 -41.000000 95.424599 0 0 0
73.000000 -41.000000 -2.431200 0 0 0
74.000000 -41.000000 -2.431200 0 0 0
75.000000 -41.000000 -2.431200 0 0 0
76.000000 -41.000000 -2.431200 0 0 0
77.000000 -41.000000 -2.431200 0 0 0
78.000000 -41.000000 -2.431200 1 0 0
79.000000 -41.000000 -2.431200 0 0 0
80.000000 -41.000000 -2.431200 1 1 0
81.000000 -41.000000 -2.431200 1 1 1
82.000000 -41.000000 -2.431200 1 1 0
83.000000 -41.000000 -2.431200 1 1 1
84.000000 -41.000000 -2.431200 0 0 0
85.000000 -41.000000 95.424599 1 1 1
86.000000 -41.000000 95.424599 1 1 1
87.000000 -41.000000 95.120705 7 6 7
88.000000 -41.000000 94.816803 62 54 56
63.000000 -42.000000 17.018400 0 0 0
64.000000 -42.000000 17.018400 0 0 0
65.000000 -42.000000 -2.431200 0 0 0
66.000000 -42.000000 -2.431200 0 0 0
67.000000 -42.000000 -2.431200 0 0 0
68.000000 -42.000000 -2.431200 0 0 0
69.000000 -42.000000 -2.431200 0 0 0
70.000000 -42.000000 -2.431200 0 0 0
71.000000 -42.000000 -2.431200 0 0 0
72.000000 -42.000000 -2.431200 0 0 0
73.000000 -42.000000 -2.431200 0 0 0
74.000000 -42.000000 -2.431200 0 0 0
75.000000 -42.000000 -2.431200 0 0 0
76.000000 -42.000000 -2.431200 0 0 0
77.000000 -42.000000 -2.431200 0 0 0
78.000000 -42.000000 -2.431200 0 0 0
79.000000 -42.000000 -2.431200 0 0 0
80.000000 -42.000000 -2.431200 1 1 1
81.000000 -42.000000 -2.431200 1 1 1
82.000000 -42.000000 -2.431200 0 0 0
83.000000 -42.000000 -2.431200 0 0 0
84.000000 -42.000000 96.032402 0 0 0
85.000000 -42.000000 96.032402 1 1 1
86.000000 -42.000000 96.032402 6 5 6
87.000000 -42.000000 95.424599 52 45 47
88.000000 -42.000000 95.120705 145 126 132
63.000000 -43.000000 -2.431200 0 0 0
64.000000 -43.000000 -2.431200 0 0 0
65.000000 -43.000000 -2.431200 0 0 0
66.000000 -43.000000 -2.431200 0 0 0
67.000000 -43.000000 -2.431200 0 0 0
68.000000 -43.000000 -2.431200 0 0 0
69.000000 -43.000000 -2.431200 0 0 0
70.000000 -43.000000 -2.431200 0 0 0
71.000000 -43.000000 -2.431200 0 0 0
72.000000 -43.000000 -2.431200 0 0 0
73.000000 -43.000000 -2.431200 0 0 0
74.000000 -43.000000 -2.431200 0 0 0
75.000000 -43.000000 -2.431200 0 0 0
76.000000 -43.000000 -2.431200 0 0 0
77.000000 -43.000000 -2.431200 0 0 0
78.000000 -43.000000 -2.431200 0 0 0
79.000000 -43.000000 -2.431200 0 0 0
80.000000 -43.000000 -2.431200 1 1 1
81.000000 -43.000000 -2.431200 0 0 0
82.000000 -43.000000 -2.431200 0 0 0
83.000000 -43.000000 97.551903 0 0 0
84.000000 -43.000000 101.958450 1 1 1
85.000000 -43.000000 97.551903 5 5 5
86.000000 -43.000000 96.488251 43 37 39
87.000000 -43.000000 95.576553 135 117 122
88.000000 -43.000000 95.120705 188 163 171
63.000000 -44.000000 -2.431200 0 0 0
64.000000 -44.000000 -2.431200 0 0 0
65.000000 -44.000000 -2.431200 0 0 0
66.000000 -44.000000 -2.431200 0 0 0
67.000000 -44.000000 -2.431200 0 0 0
68.000000 -44.000000 -2.431200 0 0 0
69.000000 -44.000000 -2.431200 0 0 0
70.000000 -44.000000 -2.431200 0 0 0
71.000000 -44.000000 -2.431200 0 0 0
72.000000 -44.000000 -2.431200 0 0 0
73.000000 -44.000000 -2.431200 0 0 0
74.000000 -44.000000 -2.431200 0 0 0
75.000000 -44.000000 -2.431200 0 0 0
76.000000 -44.000000 -2.431200 0 0 0
77.000000 -44.000000 -2.431200 1 1 1
78.000000 -44.000000 -2.431200 1 0 0
79.000000 -44.000000 -2.431200 0 0 0
80.000000 -44.000000 -2.431200 0 0 0
81.000000 -44.000000 -2.431200 0 0 0
82.000000 -44.000000 -2.431200 0 0 0
83.000000 -44.000000 101.958450 1 1 1
84.000000 -44.000000 104.237701 2 2 2
85.000000 -44.000000 104.237701 34 29 30
86.000000 -44.000000 97.399948 123 107 112
87.000000 -44.000000 95.272652 185 161 168
88.000000 -44.000000 94.968750 195 169 177
63.000000 -45.000000 -2.431200 0 0 0
64.000000 -45.000000 -2.431200 0 0 0
65.000000 -45.000000 -2.431200 0 0 0
66.000000 -45.000000 -2.431200 0 0 0
67.000000 -45.000000 -2.431200 0 0 0
68.000000 -45.000000 -2.431200 0 0 0
69.000000 -45.000000 -2.431200 0 0 0
70.000000 -45.000000 -2.431200 0 0 0
71.000000 -45.000000 -2.431200 0 0 0
72.000000 -45.000000 -2.431200 0 0 0
73.000000 -45.000000 -2.431200 0 0 0
74.000000 -45.000000 -2.431200 0 0 0
75.000000 -45.000000 -2.431200 0 0 0
76.000000 -45.000000 -2.431200 1 1 1
77.000000 -45.000000 -2.431200 2 1 1
78.000000 -45.000000 -2.431200 2 2 2
79.000000 -45.000000 -1.063650 3 2 2
80.000000 -45.000000 -0.303900 2 2 2
83.000000 -45.000000 103.629898 2 2 2
84.000000 -45.000000 104.237701 28 24 25
85.000000 -45.000000 104.237701 113 98 103
86.000000 -45.000000 102.870148 182 157 165
87.000000 -45.000000 94.968750 195 169 177
63.000000 -46.000000 -2.431200 0 0 0
64.000000 -46.000000 3.950700 0 0 0
65.000000 -46.000000 2.887050 0 0 0
66.000000 -46.000000 4.254600 0 0 0
67.000000 -46.000000 4.254600 0 0 0
68.000000 -46.000000 4.254600 0 0 0
69.000000 -46.000000 -2.431200 0 0 0
70.000000 -46.000000 -2.431200 0 0 0
71.000000 -46.000000 -2.431200 0 0 0
72.000000 -46.000000 -2.431200 0 0 0
73.000000 -46.000000 -2.431200 0 0 0
74.000000 -46.000000 -2.431200 0 0 0
75.000000 -46.000000 -2.431200 0 0 0
76.000000 -46.000000 -2.431200 2 1 1
77.000000 -46.000000 -2.431200 2 2 2
78.000000 -46.000000 -2.431200 4 3 3
79.000000 -46.000000 -0.303900 3 2 2
80.000000 -46.000000 -0.151950 1 1 1
81.000000 -46.000000 2.735100 1 0 0
82.000000 -46.000000 4.406550 1 1 1
83.000000 -46.000000 103.629898 23 20 20
84.000000 -46.000000 104.389648 104 90 95
85.000000 -46.000000 104.389648 178 154 162
86.000000 -46.000000 103.933800 194 169 177
87.000000 -46.000000 94.968750 195 169 177
63.000000 -47.000000 3.950700 0 0 0
64.000000 -47.000000 4.862400 0 0 0
65.000000 -47.000000 4.862400 0 0 0
66.000000 -47.000000 5.470200 0 0 0
67.000000 -47.000000 5.470200 0 0 0
68.000000 -47.000000 5.166300 0 0 0
69.000000 -47.000000 4.862400 0 0 0
70.000000 -47.000000 4.862400 0 0 0
71.000000 -47.000000 -2.431200 0 0 0
72.000000 -47.000000 -2.431200 0 0 0
73.000000 -47.000000 -2.431200 0 0 0
74.000000 -47.000000 -2.431200 0 0 0
75.000000 -47.000000 -2.431200 0 0 0
76.000000 -47.000000 -2.431200 2 2 2
77.000000 -47.000000 -2.431200 2 1 1
78.000000 -47.000000 -2.431200 1 1 1
79.000000 -47.000000 -2.431200 0 0 0
83.000000 -47.000000 103.477951 93 81 85
84.000000 -47.000000 103.629898 174 151 158
85.000000 -47.000000 102.870148 194 168 176
86.000000 -47.000000 102.870148 195 169 177
87.000000 -47.000000 102.718201 195 169 177
63.000000 -48.000000 4.862400 0 0 0
64.000000 -48.000000 5.774100 0 0 0
65.000000 -48.000000 5.622150 0 0 0
66.000000 -48.000000 6.989700 0 0 0
67.000000 -48.000000 6.989700 0 0 0
68.000000 -48.000000 5.926050 0 0 0
69.000000 -48.000000 5.470200 0 0 0
70.000000 -48.000000 4.862400 0 0 0
71.000000 -48.000000 -2.431200 0 0 0
72.000000 -48.000000 -2.431200 0 0 0
73.000000 -48.000000 -2.431200 0 0 0
74.000000 -48.000000 -2.431200 0 0 0
75.000000 -48.000000 -2.431200 0 0 0
76.000000 -48.000000 -2.431200 1 1 1
77.000000 -48.000000 -2.431200 1 1 1
78.000000 -48.000000 -2.431200 1 1 1
79.000000 -48.000000 -2.431200 0 0 0
83.000000 -48.000000 103.477951 170 147 154
84.000000 -48.000000 103.781853 194 168 176
85.000000 -48.000000 102.718201 195 169 177
86.000000 -48.000000 102.718201 195 169 177
87.000000 -48.000000 102.718201 195 169 177
63.000000 -49.000000 5.622150 0 0 0
64.000000 -49.000000 7.293600 0 0 0
65.000000 -49.000000 6.989700 0 0 0
66.000000 -49.000000 7.293600 0 0 0
67.000000 -49.000000 7.901400 0 0 0
68.000000 -49.000000 7.293600 0 0 0
69.000000 -49.000000 6.685800 0 0 0
70.000000 -49.000000 5.470200 0 0 0
71.000000 -49.000000 4.862400 0 0 0
72.000000 -49.000000 -2.431200 0 0 0
73.000000 -49.000000 -2.431200 0 0 0
74.000000 -49.000000 -2.431200 0 0 0
75.000000 -49.000000 -2.431200 0 0 0
76.000000 -49.000000 -2.431200 1 1 1
77.000000 -49.000000 -2.431200 2 1 1
78.000000 -49.000000 -2.431200 2 1 1
83.000000 -49.000000 102.718201 193 167 175
63.000000 -50.000000 6.989700 0 0 0
64.000000 -50.000000 8.813100 0 0 0
65.000000 -50.000000 8.205300 0 0 0
66.000000 -50.000000 8.205300 0 0 0
67.000000 -50.000000 7.901400 0 0 0
68.000000 -50.000000 7.901400 0 0 0
69.000000 -50.000000 7.901400 0 0 0
70.000000 -50.000000 6.685800 0 0 0
71.000000 -50.000000 5.470200 0 0 0
72.000000 -50.000000 -2.431200 0 0 0
73.000000 -50.000000 -2.431200 0 0 0
74.000000 -50.000000 -2.431200 0 0 0
75.000000 -50.000000 -2.431200 0 0 0
76.000000 -50.000000 -2.431200 0 0 0
77.000000 -50.000000 -2.431200 0 0 0
78.000000 -50.000000 -2.431200 1 1 0
83.000000 -50.000000 102.718201 195 169 177
63.000000 -51.000000 6.989700 0 0 0
64.000000 -51.000000 9.117001 0 0 0
65.000000 -51.000000 8.205300 0 0 0
69.000000 -51.000000 6.837750 0 0 0
70.000000 -51.000000 6.837750 0 0 0
71.000000 -51.000000 6.685800 0 0 0
72.000000 -51.000000 5.470200 0 0 0
73.000000 -51.000000 -2.431200 1 1 1
74.000000 -51.000000 -2.431200 1 0 0
75.000000 -51.000000 -2.431200 0 0 0
76.000000 -51.000000 -2.431200 0 1 0
77.000000 -51.000000 -2.431200 0 0 0
78.000000 -51.000000 -2.431200 11 10 10
63.000000 -52.000000 8.205300 0 0 0
64.000000 -52.000000 9.268950 0 0 0
69.000000 -52.000000 8.661150 0 0 0
70.000000 -52.000000 8.661150 0 0 0
71.000000 -52.000000 7.141650 0 0 0
72.000000 -52.000000 5.622150 0 0 0
73.000000 -52.000000 -2.431200 2 1 1
74.000000 -52.000000 -2.431200 1 1 1
75.000000 -52.000000 -2.431200 0 0 0
76.000000 -52.000000 -2.431200 1 1 0
77.000000 -52.000000 -2.431200 10 9 9
78.000000 -52.000000 -2.431200 69 60 62
63.000000 -53.000000 16.410601 0 0 0
64.000000 -53.000000 16.410601 0 0 0
68.000000 -53.000000 16.106701 0 0 0
69.000000 -53.000000 16.106701 0 0 0
70.000000 -53.000000 15.954750 0 0 0
71.000000 -53.000000 8.509200 0 0 0
72.000000 -53.000000 -2.431200 0 0 0
73.000000 -53.000000 -2.431200 1 1 1
74.000000 -53.000000 -2.431200 1 1 1
75.000000 -53.000000 -2.431200 0 0 0
76.000000 -53.000000 -2.431200 10 9 9
77.000000 -53.000000 -2.431200 69 60 62
78.000000 -53.000000 -2.431200 156 135 141
63.000000 -54.000000 16.866449 0 0 0
64.000000 -54.000000 16.866449 0 0 0
67.000000 -54.000000 16.106701 0 0 0
68.000000 -54.000000 16.258650 0 0 0
69.000000 -54.000000 16.258650 0 0 0
70.000000 -54.000000 16.258650 0 0 0
71.000000 -54.000000 16.106701 0 0 0
72.000000 -54.000000 -2.431200 1 1 1
73.000000 -54.000000 -2.431200 1 1 1
74.000000 -54.000000 -2.431200 1 1 1
75.000000 -54.000000 -2.431200 14 12 12
76.000000 -54.000000 -2.431200 71 61 64
77.000000 -54.000000 -2.431200 156 135 141
78.000000 -54.000000 -2.431200 192 166 174
63.000000 -55.000000 17.018400 0 0 0
64.000000 -55.000000 17.018400 0 0 0
67.000000 -55.000000 16.106701 0 0 0
68.000000 -55.000000 16.410601 0 0 0
69.000000 -55.000000 16.410601 0 0 0
70.000000 -55.000000 16.410601 0 0 0
71.000000 -55.000000 16.410601 1 0 0
72.000000 -55.000000 16.106701 1 1 1
76.000000 -55.000000 -2.431200 160 139 146
77.000000 -55.000000 -2.431200 192 166 174
78.000000 -55.000000 -2.431200 195 169 177
63.000000 -56.000000 17.018400 0 0 0
64.000000 -56.000000 17.018400 0 0 0
67.000000 -56.000000 16.106701 0 0 0
68.000000 -56.000000 16.410601 0 0 0
69.000000 -56.000000 16.410601 0 0 0
70.000000 -56.000000 16.562550 0 0 0
71.000000 -56.000000 16.562550 0 0 0
72.000000 -56.000000 16.562550 1 1 1
77.000000 -56.000000 -2.431200 195 169 177
78.000000 -56.000000 -2.431200 195 169 177
79.000000 -56.000000 -2.431200 195 169 177
63.000000 -57.000000 17.018400 0 0 0
64.000000 -57.000000 17.018400 0 0 0
67.000000 -57.000000 16.106701 0 0 0
68.000000 -57.000000 16.410601 0 0 0
